388
111600.0 60400.0 43600.0
111600.0 61200.0 44400.0
112400.0 60400.0 46000.0
112400.0 59600.0 46000.0
112400.0 59600.0 45200.0
112400.0 59600.0 46800.0
112400.0 58800.0 46800.0
112400.0 58000.0 47600.0
112400.0 58800.0 45200.0
112400.0 58000.0 46000.0
112400.0 57200.0 46000.0
112400.0 57200.0 47600.0
112400.0 57200.0 46800.0
112400.0 56400.0 46800.0
112400.0 55600.0 49200.0
112400.0 56400.0 48400.0
112400.0 57200.0 49200.0
112400.0 57200.0 48400.0
112400.0 56400.0 50000.0
112400.0 55600.0 50800.0
112400.0 54800.0 50800.0
106000.0 34000.0 18000.0
106000.0 33200.0 18000.0
106800.0 33200.0 18000.0
106000.0 32400.0 17200.0
104400.0 32400.0 16400.0
104400.0 33200.0 16400.0
105200.0 33200.0 17200.0
105200.0 32400.0 17200.0
105200.0 34000.0 17200.0
105200.0 31600.0 17200.0
80400.0 12400.0 10800.0
80400.0 14000.0 8400.0
81200.0 14000.0 8400.0
80400.0 13200.0 9200.0
79600.0 13200.0 9200.0
81200.0 13200.0 10000.0
99600.0 25200.0 16400.0
99600.0 24400.0 17200.0
100400.0 25200.0 16400.0
98800.0 25200.0 16400.0
98800.0 24400.0 17200.0
98800.0 23600.0 18000.0
78800.0 10000.0 14800.0
95600.0 18000.0 27600.0
95600.0 18000.0 28400.0
96400.0 18000.0 28400.0
96400.0 18000.0 27600.0
96400.0 18000.0 26800.0
96400.0 18000.0 26000.0
99600.0 26000.0 16400.0
100400.0 26000.0 16400.0
67600.0 6800.0 19600.0
54000.0 13200.0 7600.0
54000.0 14000.0 7600.0
53200.0 13200.0 8400.0
62800.0 13200.0 6000.0
63600.0 13200.0 6000.0
70800.0 13200.0 6000.0
70800.0 14000.0 5200.0
70800.0 14800.0 5200.0
70000.0 13200.0 6000.0
70000.0 14000.0 5200.0
69200.0 12400.0 6800.0
70000.0 12400.0 6800.0
62800.0 11600.0 7600.0
63600.0 11600.0 7600.0
62800.0 12400.0 6800.0
63600.0 12400.0 6800.0
52400.0 11600.0 9200.0
53200.0 11600.0 9200.0
54000.0 11600.0 9200.0
53200.0 12400.0 8400.0
54000.0 12400.0 8400.0
54800.0 11600.0 8400.0
54800.0 12400.0 8400.0
53200.0 10800.0 10000.0
54000.0 10800.0 10000.0
53200.0 10000.0 10800.0
54000.0 10000.0 10800.0
52400.0 10800.0 10000.0
18800.0 16400.0 13200.0
18800.0 17200.0 13200.0
20400.0 18000.0 13200.0
19600.0 18000.0 13200.0
20400.0 17200.0 13200.0
19600.0 17200.0 13200.0
19600.0 16400.0 13200.0
66800.0 94800.0 67600.0
66800.0 95600.0 66000.0
66000.0 95600.0 66000.0
67600.0 95600.0 65200.0
66800.0 96400.0 64400.0
66000.0 96400.0 64400.0
66800.0 97200.0 62000.0
66000.0 97200.0 62800.0
66800.0 96400.0 63600.0
67600.0 96400.0 63600.0
67600.0 97200.0 61200.0
67600.0 97200.0 62000.0
41200.0 56400.0 40400.0
40400.0 57200.0 40400.0
41200.0 57200.0 39600.0
38800.0 58800.0 40400.0
39600.0 58000.0 40400.0
39600.0 58800.0 39600.0
40400.0 58000.0 39600.0
40400.0 58800.0 38800.0
41200.0 58000.0 38800.0
39600.0 60400.0 38800.0
39600.0 59600.0 39600.0
39600.0 62000.0 37200.0
39600.0 61200.0 38000.0
40400.0 61200.0 37200.0
41200.0 61200.0 36400.0
40400.0 62000.0 36400.0
42000.0 61200.0 34800.0
41200.0 60400.0 36400.0
41200.0 59600.0 37200.0
40400.0 59600.0 38000.0
40400.0 60400.0 38000.0
41200.0 58800.0 38000.0
42000.0 59600.0 36400.0
42000.0 60400.0 35600.0
70000.0 94800.0 39600.0
69200.0 95600.0 40400.0
90800.0 58800.0 22000.0
91600.0 58000.0 22000.0
92400.0 58800.0 22000.0
91600.0 58800.0 22000.0
91600.0 59600.0 22000.0
92400.0 59600.0 22000.0
91600.0 60400.0 22000.0
90800.0 60400.0 22000.0
90800.0 59600.0 22000.0
110000.0 47600.0 58800.0
110000.0 47600.0 58000.0
110000.0 46800.0 58000.0
109200.0 47600.0 59600.0
109200.0 48400.0 60400.0
109200.0 49200.0 60400.0
110000.0 49200.0 59600.0
109200.0 48400.0 59600.0
110000.0 48400.0 58800.0
110000.0 50000.0 59600.0
109200.0 50000.0 60400.0
109200.0 50800.0 60400.0
109200.0 50800.0 61200.0
107600.0 50800.0 62800.0
108400.0 50800.0 62000.0
108400.0 50000.0 61200.0
108400.0 50000.0 62000.0
108400.0 49200.0 61200.0
107600.0 57200.0 63600.0
107600.0 56400.0 63600.0
108400.0 54800.0 62800.0
108400.0 55600.0 62800.0
107600.0 55600.0 63600.0
107600.0 54800.0 63600.0
108400.0 51600.0 62000.0
108400.0 52400.0 62000.0
108400.0 53200.0 62800.0
108400.0 54000.0 62800.0
107600.0 54000.0 63600.0
107600.0 53200.0 63600.0
107600.0 52400.0 63600.0
108400.0 52400.0 62800.0
107600.0 51600.0 62800.0
107600.0 51600.0 63600.0
109200.0 52400.0 61200.0
109200.0 51600.0 61200.0
109200.0 53200.0 62000.0
109200.0 53200.0 61200.0
109200.0 54000.0 61200.0
109200.0 54000.0 62000.0
109200.0 54800.0 62000.0
109200.0 54800.0 61200.0
110000.0 51600.0 60400.0
106800.0 54000.0 65200.0
106800.0 54000.0 64400.0
106800.0 53200.0 64400.0
106000.0 53200.0 65200.0
106000.0 54000.0 66000.0
106800.0 52400.0 64400.0
106800.0 51600.0 64400.0
105200.0 54800.0 66800.0
105200.0 55600.0 66800.0
106800.0 56400.0 65200.0
106800.0 57200.0 65200.0
106000.0 57200.0 66000.0
106000.0 56400.0 66000.0
106000.0 55600.0 66000.0
106000.0 54800.0 66000.0
106800.0 55600.0 65200.0
106800.0 54800.0 65200.0
107600.0 55600.0 64400.0
107600.0 54800.0 64400.0
107600.0 56400.0 64400.0
78000.0 4400.0 31600.0
77200.0 4400.0 31600.0
77200.0 4400.0 30800.0
78000.0 4400.0 30800.0
78800.0 4400.0 31600.0
78800.0 4400.0 30800.0
79600.0 4400.0 30800.0
77200.0 3600.0 34000.0
78000.0 3600.0 32400.0
77200.0 3600.0 32400.0
77200.0 3600.0 33200.0
78000.0 3600.0 33200.0
61200.0 4400.0 39600.0
61200.0 4400.0 40400.0
61200.0 5200.0 41200.0
61200.0 5200.0 42800.0
61200.0 5200.0 42000.0
62000.0 5200.0 42000.0
62000.0 5200.0 42800.0
62000.0 5200.0 43600.0
61200.0 5200.0 44400.0
61200.0 5200.0 43600.0
61200.0 5200.0 45200.0
76400.0 3600.0 32400.0
76400.0 4400.0 31600.0
25200.0 7600.0 34800.0
24400.0 7600.0 34800.0
24400.0 7600.0 34000.0
25200.0 7600.0 34000.0
25200.0 7600.0 33200.0
24400.0 7600.0 35600.0
23600.0 8400.0 35600.0
26800.0 7600.0 31600.0
27600.0 7600.0 31600.0
27600.0 7600.0 30800.0
26000.0 7600.0 34000.0
26000.0 7600.0 33200.0
26000.0 7600.0 32400.0
26800.0 7600.0 32400.0
42000.0 5200.0 33200.0
42000.0 5200.0 32400.0
42800.0 5200.0 32400.0
42800.0 4400.0 33200.0
42800.0 4400.0 34000.0
42800.0 4400.0 34800.0
42000.0 5200.0 34800.0
42000.0 5200.0 34000.0
42000.0 5200.0 35600.0
42800.0 5200.0 30000.0
43600.0 5200.0 29200.0
43600.0 5200.0 30000.0
43600.0 5200.0 30800.0
42800.0 5200.0 30800.0
42000.0 5200.0 31600.0
42800.0 5200.0 31600.0
43600.0 4400.0 31600.0
48400.0 7600.0 54000.0
48400.0 7600.0 53200.0
48400.0 8400.0 55600.0
48400.0 8400.0 54800.0
48400.0 9200.0 56400.0
49200.0 8400.0 56400.0
49200.0 9200.0 57200.0
48400.0 9200.0 57200.0
48400.0 10000.0 60400.0
49200.0 10000.0 60400.0
48400.0 9200.0 58000.0
48400.0 9200.0 58800.0
49200.0 9200.0 58800.0
49200.0 9200.0 58000.0
48400.0 9200.0 59600.0
49200.0 9200.0 59600.0
48400.0 10000.0 62800.0
48400.0 10000.0 62000.0
48400.0 10000.0 61200.0
49200.0 10000.0 61200.0
34000.0 13200.0 63600.0
34000.0 13200.0 62800.0
33200.0 13200.0 61200.0
33200.0 13200.0 60400.0
34000.0 13200.0 64400.0
34000.0 13200.0 65200.0
34800.0 13200.0 66000.0
34000.0 13200.0 66000.0
34800.0 12400.0 65200.0
34800.0 12400.0 64400.0
34000.0 12400.0 61200.0
34000.0 12400.0 62000.0
34800.0 12400.0 63600.0
34800.0 12400.0 62800.0
95600.0 25200.0 57200.0
98000.0 25200.0 56400.0
98000.0 24400.0 55600.0
98000.0 23600.0 54800.0
97200.0 23600.0 54800.0
96400.0 24400.0 55600.0
97200.0 24400.0 55600.0
97200.0 25200.0 56400.0
96400.0 24400.0 56400.0
96400.0 25200.0 57200.0
93200.0 40400.0 71600.0
94000.0 39600.0 70800.0
94000.0 38800.0 70000.0
94800.0 38800.0 70000.0
97200.0 26000.0 57200.0
95600.0 26000.0 58000.0
94800.0 26000.0 58000.0
95600.0 26800.0 58800.0
94800.0 26800.0 58800.0
94800.0 27600.0 59600.0
93200.0 27600.0 60400.0
94000.0 27600.0 60400.0
93200.0 26800.0 59600.0
94000.0 26800.0 59600.0
94000.0 26000.0 58800.0
96400.0 26800.0 58800.0
96400.0 26000.0 58000.0
97200.0 26800.0 58000.0
94800.0 38000.0 69200.0
94000.0 38000.0 70000.0
94000.0 37200.0 69200.0
94800.0 37200.0 68400.0
52400.0 45200.0 62800.0
52400.0 45200.0 63600.0
53200.0 45200.0 63600.0
53200.0 46800.0 67600.0
52400.0 45200.0 64400.0
52400.0 46000.0 65200.0
53200.0 46000.0 65200.0
53200.0 45200.0 64400.0
53200.0 46800.0 66800.0
53200.0 46000.0 66000.0
69200.0 50800.0 78800.0
68400.0 50800.0 78800.0
69200.0 49200.0 78000.0
69200.0 48400.0 77200.0
69200.0 50000.0 78000.0
73200.0 64400.0 83600.0
76400.0 58000.0 82000.0
75600.0 58800.0 82000.0
76400.0 58800.0 82000.0
75600.0 59600.0 82800.0
76400.0 59600.0 82800.0
76400.0 60400.0 82800.0
75600.0 60400.0 82800.0
74800.0 60400.0 82800.0
74800.0 61200.0 82800.0
74800.0 62000.0 82800.0
74000.0 62000.0 82800.0
75600.0 61200.0 82800.0
76400.0 61200.0 82800.0
75600.0 62000.0 82800.0
74000.0 62800.0 82800.0
74800.0 62800.0 82800.0
74000.0 63600.0 82800.0
73200.0 62800.0 82800.0
73200.0 63600.0 83600.0
76400.0 57200.0 82000.0
68400.0 52400.0 79600.0
68400.0 51600.0 79600.0
69200.0 51600.0 79600.0
95600.0 65200.0 74800.0
96400.0 65200.0 74000.0
96400.0 64400.0 74000.0
96400.0 66000.0 74000.0
97200.0 66000.0 73200.0
97200.0 65200.0 73200.0
97200.0 64400.0 73200.0
98000.0 64400.0 72400.0
98000.0 65200.0 72400.0
98800.0 58000.0 72400.0
98000.0 58800.0 73200.0
98800.0 58800.0 72400.0
98800.0 59600.0 72400.0
98000.0 59600.0 73200.0
98000.0 60400.0 73200.0
98800.0 60400.0 72400.0
97200.0 60400.0 73200.0
97200.0 61200.0 73200.0
97200.0 62000.0 73200.0
98800.0 61200.0 72400.0
98000.0 61200.0 73200.0
98000.0 62000.0 73200.0
98000.0 62800.0 73200.0
98000.0 63600.0 73200.0
97200.0 62800.0 73200.0
97200.0 63600.0 73200.0
96400.0 63600.0 74000.0
96400.0 62800.0 74000.0
98800.0 57200.0 72400.0
